# .PCD v0.7 - Point Cloud Data file format
VERSION 0.7
FIELDS x y z intensity distance sid
SIZE 4 4 4 4 4 4
TYPE F F F F F F
COUNT 1 1 1 1 1 1
WIDTH 867
HEIGHT 1
VIEWPOINT 0 0 0 1 0 0 0
POINTS 867
DATA ascii
-0.1647011 -0.57290667 -1.3933111 17.555555 1.3661112 321.61111
-0.15549591 -0.57310182 -1.3951454 16.363636 1.3674548 325.5
-0.14583334 -0.57337463 -1.3947251 15.916667 1.3667917 329.54169
-0.13511333 -0.57325262 -1.394974 16.740742 1.3666297 334.03705
-0.12425863 -0.57427174 -1.3944068 17.310345 1.3662413 338.58621
-0.1150656 -0.57356399 -1.3946438 17.279999 1.3660399 342.44
-0.10475706 -0.57354885 -1.3949708 18 1.3662353 346.76471
-0.09595865 -0.57347906 -1.3942728 19.545456 1.3655456 350.45456
-0.084702522 -0.57334036 -1.3954175 18 1.3666087 355.17392
-0.88211 -0.402125 -1.6867499 12 1.775 87.5
-0.074254237 -0.57414919 -1.3939838 18.08 1.3657199 359.56
-0.87401164 -0.40571672 -1.6857333 11.666667 1.7713335 89.833336
-0.064794764 -0.57402766 -1.3949562 17.199999 1.3667599 363.51999
-0.86523318 -0.40719458 -1.6853386 12 1.7674617 92.384621
-0.055901852 -0.57379955 -1.39472 17.4 1.3667001 367.25
-0.85618556 -0.4081111 -1.6865333 12.222222 1.7647778 95.222221
-0.045486104 -0.5741415 -1.395565 19 1.3679501 371.60001
-0.84442675 -0.40885335 -1.6862668 12 1.7596668 98.666672
-0.035079382 -0.57459652 -1.3943825 18.705883 1.3674703 375.97058
-0.8361125 -0.40850124 -1.6872874 12.75 1.7570001 101.25
-0.024043908 -0.57363772 -1.3946 18.181818 1.3678635 380.59091
-0.82397997 -0.409098 -1.68678 12.400001 1.7515999 104.8
-0.014989318 -0.57480145 -1.3947182 20.272728 1.3689092 384.36365
-0.76949 -0.17614999 -1.2268 4 1.2869999 35
-0.81467307 -0.40794903 -1.6880101 12.2 1.7485999 107.7
-0.0048271003 -0.57418823 -1.3955956 19.454546 1.3701365 388.59091
-0.80672002 -0.40722001 -1.68945 11.5 1.7465 110.25
0.0046187439 -0.5737372 -1.3943334 20 1.3694762 392.57144
-0.79354149 -0.40707573 -1.6867572 12.000001 1.7387143 113.85715
0.014103719 -0.57552522 -1.3950999 18.24 1.3716 396.47998
-0.78552669 -0.40744889 -1.6879334 12.888889 1.7366668 116.44444
0.025181165 -0.57540202 -1.3958367 16.133335 1.3731667 401.06668
-0.21187 0.38629001 -1.3497 4 1.267 298
-0.77562803 -0.40915999 -1.6855601 13.2 1.7310002 119.2
0.035278682 -0.5740664 -1.396041 18.09091 1.3737726 405.27274
-0.20958 0.38481 -1.3493 8 1.266 299
-0.7644856 -0.40824109 -1.6854223 11.333333 1.7263333 122.55556
0.045579657 -0.57397842 -1.3952808 17.769232 1.3740772 409.57693
-0.75406778 -0.40849668 -1.6864334 12 1.7233334 125.88889
0.055186834 -0.57537663 -1.3960751 18.25 1.3763752 413.5
-0.69060999 -0.179225 -1.2268 15 1.248 66
-0.74374002 -0.40817332 -1.6859335 13.555555 1.718889 129
0.064072877 -0.57546461 -1.3943501 18.25 1.3758335 417.25
-0.73660672 -0.40847668 -1.6896667 12 1.7196667 131.66667
0.073997967 -0.5757339 -1.3942956 18.608696 1.377087 421.34784
-0.72542012 -0.40744224 -1.6878667 12 1.7136666 134.88889
0.084898338 -0.57590383 -1.3948954 18 1.3790952 425.80954
-0.7156837 -0.40826625 -1.68725 11.75 1.7097501 137.875
0.094559923 -0.57582867 -1.3954241 18.896551 1.380862 429.75861
-0.70476669 -0.40851337 -1.6860999 11.666667 1.7048334 141.16667
0.10521136 -0.57589269 -1.3944864 18.363636 1.3815454 434.18182
-0.69592875 -0.40812248 -1.6866626 12.25 1.7021251 144
0.11607347 -0.57597578 -1.3954117 18.384617 1.3840387 438.57693
-0.12597883 0.3856788 -1.3461059 13.058824 1.2585293 336.82352
-0.68519002 -0.40748626 -1.687775 12.5 1.6992501 147.5
0.12525697 -0.5763526 -1.3949566 19.304348 1.3852173 442.34784
-0.67482799 -0.40821099 -1.6868299 12.400001 1.6950001 150.7
0.13512699 -0.57647502 -1.395265 18.9 1.38715 446.35001
-0.66485834 -0.40835834 -1.6879334 13.666667 1.6926668 154
0.14532566 -0.57641095 -1.3949084 17.652174 1.3885653 450.52176
-0.65283 -0.40897 -1.6892 14 1.6900001 158
0.15545958 -0.57599509 -1.396425 18.5 1.3915834 454.54169
-0.644485 -0.40774125 -1.6878625 13.75 1.6857499 160.5
0.16513044 -0.57625043 -1.3962293 18.166668 1.3932918 458.45834
-0.63560665 -0.40882334 -1.6873834 14.333334 1.6826668 163.33334
0.17495738 -0.57682264 -1.3945841 17.68421 1.3938948 462.52631
-0.62313575 -0.40836003 -1.6867143 13.428572 1.6780001 167.28572
0.18509945 -0.57712722 -1.3951776 18.111111 1.3965557 466.55557
-0.61505407 -0.407998 -1.68673 13.400001 1.6754 169.90001
0.19517522 -0.57645208 -1.3958696 19.304348 1.3990002 470.56522
-0.60469627 -0.40828127 -1.6863874 13.5 1.6719999 173.25
0.20447449 -0.57690448 -1.3954901 21.200001 1.4008001 474.30002
-0.59499002 -0.40827334 -1.6888332 12 1.6713333 176.66667
0.214774 -0.57709271 -1.3954868 20.400002 1.4031335 478.40002
-0.58506143 -0.40811142 -1.6867715 12.857143 1.6664288 179.71429
0.22560258 -0.57698345 -1.3956263 18.52174 1.4056523 482.69565
-0.57483196 -0.40795204 -1.6880001 13.2 1.6646 183.2
0.23480579 -0.57725161 -1.3958054 18.526316 1.4080528 486.3158
-0.56654871 -0.40708375 -1.6889 13.25 1.6628749 186
0.24542332 -0.57716191 -1.3956667 15.523809 1.4104286 490.5238
-0.55359 -0.40831667 -1.6890666 14 1.6596668 190.33334
0.25479755 -0.57718301 -1.395775 17 1.41285 494.20001
-0.54480433 -0.4081257 -1.6879001 13.714287 1.656143 193.14287
0.26620528 -0.57778239 -1.3951883 17.411764 1.4154117 498.70587
-0.53525698 -0.40820104 -1.6875401 14.2 1.6532999 196.3
0.27556568 -0.57700193 -1.3943381 16.476191 1.4168097 502.4762
-0.52420253 -0.4078967 -1.6866751 14.333334 1.6495003 199.91667
0.28567472 -0.57755077 -1.3955669 18.933334 1.4208 506.26669
-0.5161283 -0.40744334 -1.6891668 14.666667 1.6496667 202.83334
0.29570404 -0.577474 -1.3951668 18.933334 1.4231334 510.20001
-0.50387007 -0.40909001 -1.6872333 15.666667 1.6451668 206.83334
0.30437952 -0.57661766 -1.3962238 20.380953 1.4261904 513.4762
-0.49476749 -0.40835249 -1.68855 16.5 1.6440001 210
0.31476876 -0.57658952 -1.3957999 20.32 1.4287599 517.51996
-0.48474625 -0.40808502 -1.688375 14 1.6413749 213.375
0.32585284 -0.57714331 -1.3969191 17.523809 1.4331906 521.61908
-0.47479999 -0.40846667 -1.6871669 12.666667 1.638 216.66667
0.33528003 -0.57768929 -1.3953859 19.714287 1.4348571 525.35718
-0.46535602 -0.40889797 -1.6859601 14.8 1.6348 219.8
0.34505901 -0.57665008 -1.39648 17.700001 1.4384 529
-0.45521498 -0.40807 -1.6893001 17 1.6355 223.5
0.35488904 -0.57629716 -1.3979 17.142857 1.4425712 532.57141
-0.4445 -0.409255 -1.6866751 16.5 1.6309999 227
0.36472529 -0.57728636 -1.3971263 15.578947 1.4453684 536.3158
-0.43595004 -0.40859398 -1.6876799 14.8 1.63 230
0.37470996 -0.57787871 -1.3973625 16.5 1.4490001 540
-0.42694002 -0.40895396 -1.6861801 13.6 1.6267999 233
0.38422105 -0.57795852 -1.39609 14.400001 1.4510499 543.70001
-0.41268 -0.40852001 -1.6874 14 1.625 238
0.39481899 -0.57767051 -1.3949736 17.157894 1.4535263 547.78949
-0.4070175 -0.40823254 -1.68805 12.5 1.6245 240
-0.8836 -0.47299999 -1.4109 12 1.559 47
0.40542203 -0.57765269 -1.39482 13.466667 1.4570001 551.73334
-0.39408833 -0.40928835 -1.6880667 13 1.6223334 244.5
0.41371 -0.57776088 -1.3959455 14.545455 1.4609092 554.63635
-0.385225 -0.40928 -1.6867499 13 1.6194999 247.5
0.42510194 -0.57710141 -1.395862 16.190477 1.4646192 558.85718
-0.376535 -0.40916249 -1.6863 14.5 1.6174999 250.5
0.43376142 -0.57739568 -1.3980572 16.285715 1.4697144 561.71429
-0.36417499 -0.40832627 -1.6875125 13.25 1.616375 254.875
0.44535273 -0.57811815 -1.3978182 15.454546 1.474 565.90912
-0.35529751 -0.40818751 -1.687875 13 1.6152501 258
0.45553005 -0.5775215 -1.3949156 14.307693 1.475077 570
-0.34412429 -0.40860429 -1.6866573 13.714287 1.6124285 261.85715
0.4652029 -0.57780576 -1.3946141 15.000001 1.4785715 573.5
-0.33597749 -0.40891999 -1.68715 15.5 1.61175 264.75
0.4745945 -0.57718152 -1.39639 14.7 1.4834501 576.65002
-0.32849002 -0.40768668 -1.6864333 13.333334 1.6096667 267.33334
0.48471433 -0.57705748 -1.3973124 15.125 1.4881251 580.125
-0.31290001 -0.40909001 -1.6897 12 1.6109999 273
0.49498227 -0.57809848 -1.3978693 15.076923 1.493 583.61542
-0.30558833 -0.40811333 -1.6882 13.333334 1.6083333 275.5
0.50474066 -0.57744002 -1.3962626 14.75 1.4953126 587.3125
-0.29396001 -0.40896401 -1.6876999 14.400001 1.6066 279.60001
0.51452392 -0.57693774 -1.3973389 15.444445 1.5 590.61115
0.52445257 -0.57850087 -1.3954 15.166667 1.503 594.25
-0.2738125 -0.4091025 -1.68795 13.5 1.6044999 286.75
0.53601927 -0.57815468 -1.3962309 14.307693 1.5083847 598.15387
-0.26342499 -0.40906 -1.6896 15 1.605 290.5
0.54481602 -0.57747203 -1.3959132 15.733335 1.5116 601.26672
-0.2545 -0.40903336 -1.6895001 13.333334 1.6040001 293.66669
0.55536669 -0.577788 -1.3954067 15.466667 1.5158004 604.93335
-0.24304667 -0.40907335 -1.6872 13.333334 1.6006668 297.66669
0.56571227 -0.57707387 -1.3966539 14.923078 1.521077 608.30774
-0.23936999 -0.40951502 -1.6877501 14 1.6010001 299
0.57599944 -0.57726419 -1.3968893 15.473684 1.5258424 611.73682
0.58529115 -0.57828444 -1.3977222 14.444445 1.531 614.66669
-0.21709001 -0.40909001 -1.6897 14.666667 1.6010001 307
0.59528273 -0.57796365 -1.3967181 16.181818 1.5345454 618.18182
0.60584694 -0.57727844 -1.3965 13.538462 1.5389231 621.76923
0.84214503 0.45166001 -1.6126499 6 1.7975 665
0.61450005 -0.57772732 -1.3951181 14.181819 1.5419092 624.81818
-0.18458501 -0.40941 -1.6835999 12 1.5930001 318.5
0.62496549 -0.57779002 -1.3967001 13.636364 1.5480911 628
-0.17416666 -0.40836334 -1.6892335 15.333334 1.5976667 322.33334
0.63471335 -0.57786 -1.3957334 13.555555 1.5518889 631.33331
-0.168145 -0.40907502 -1.6896501 14 1.598 324.5
0.64452863 -0.57874429 -1.3968142 12.285715 1.5577142 634.28577
0.65515912 -0.5777691 -1.3988091 13.09091 1.5640911 637.45459
0.66477859 -0.57894862 -1.3972286 12.857143 1.5678573 640.71429
-0.13046999 -0.40889999 -1.6889 14 1.596 338
0.67588449 -0.57903332 -1.3959999 12.222222 1.5723332 644.44446
-0.126295 -0.40891498 -1.689 16 1.596 339.5
0.68333155 -0.57909572 -1.3965001 11.142858 1.5764288 646.71429
-0.1151475 -0.408775 -1.6884251 12.5 1.5952501 343.5
0.69398499 -0.57934999 -1.3983001 13.5 1.58325 649.75
0.7051608 -0.57812089 -1.3967999 13.333334 1.58725 653.58337
0.71605432 -0.57849145 -1.3972715 12.857143 1.5932858 656.85718
0.72402167 -0.57807994 -1.3963335 12 1.5964999 659.5
0.7366333 -0.57817674 -1.3964834 13.333334 1.6031666 663.33337
0.74550998 -0.57804251 -1.3962667 14.666667 1.6075833 666.08337
0.75414819 -0.57773912 -1.3962455 14.909091 1.6120001 668.72729
0.76535499 -0.57908499 -1.39765 12.5 1.6194999 671.75
-0.037248999 -0.40995002 -1.6858499 16 1.594 371.5
0.77505201 -0.57925999 -1.3967 14 1.624 674.79999
0.78602248 -0.57796997 -1.398975 12.5 1.63125 677.75
-0.016202001 -0.40897 -1.6892 12 1.598 379
0.79583168 -0.579005 -1.3965 13 1.635 681
-0.72291338 -0.26666665 -1.2072667 16.666668 1.2606667 52.333336
0.80590999 -0.57811254 -1.3958626 11.75 1.63975 684.125
-0.71478832 -0.26562119 -1.2025765 25.882353 1.2524706 54.470589
-0.20117286 0.29389286 -1.3245429 16.285715 1.2191428 301
0.81551373 -0.5775919 -1.3976545 11.090909 1.6462729 686.63641
-0.70558953 -0.26638427 -1.2028571 30.095238 1.2483333 58.238098
-0.19862001 0.29113999 -1.3200999 40 1.214 302
0.82510996 -0.5780226 -1.39765 11.75 1.6517498 689.375
-0.69417679 -0.26508358 -1.202808 28.24 1.2425199 62.759998
0.83424187 -0.57798356 -1.3971363 10.545455 1.6564547 692.09094
-0.68432462 -0.26479936 -1.204275 30.4375 1.2390313 67.0625
0.84489173 -0.57885671 -1.3974667 11.333334 1.6630001 695
-0.67871398 -0.26430902 -1.2064999 30.4 1.2382001 69.800003
0.85279197 -0.57801598 -1.3969201 11.6 1.6667999 697.40002
-0.13193168 0.29236168 -1.3214333 40.666668 1.2118334 333.5
-0.12882286 0.2948586 -1.3234859 31.714287 1.2142857 335
0.11449 -0.40899 -1.6893001 13 1.61 425.5
-0.83569998 -0.54294002 -1.149 2 1.349 18
0.42061001 0.36052999 -1.5968 0 1.582 541
-0.80478001 -0.54065001 -1.14705 17 1.33 28.5
-1.0502 -0.56638002 -1.3980501 12 1.666 1
0.20169 -0.40904999 -1.6896 12 1.624 456
-1.0445846 -0.56672537 -1.3962847 12 1.6615384 2.3076923
-1.0349215 -0.56716216 -1.3962289 12.142858 1.6561431 5.0714288
-1.0249468 -0.56721401 -1.3970134 12.133334 1.6511334 8.0666676
-1.0140376 -0.56669182 -1.3960501 12.75 1.6441252 11
-1.0046201 -0.56715 -1.3954934 12.666667 1.6386001 13.666667
-0.99506414 -0.56789589 -1.3940084 11.666667 1.6324167 16.25
0.80277002 -0.10133 -1.493 4 1.626 686
-0.98450071 -0.56803429 -1.3951646 12.714286 1.6275716 19.57143
-0.97422731 -0.56751364 -1.3955002 14.363637 1.6220908 22.636364
-0.96465278 -0.56617469 -1.3955334 14.266667 1.6165334 25.400002
-0.95632547 -0.56628454 -1.3950456 14.181819 1.6117275 27.818182
-0.93370497 -0.56569999 -1.3943 4 1.599 34.5
-0.92579198 -0.56579071 -1.3951001 9.0666676 1.5955334 37.066669
-0.91584313 -0.56697696 -1.3965386 14.000001 1.5919231 40.46154
-0.90456825 -0.5673309 -1.3950638 14.363637 1.585091 43.727276
0.40680224 -0.1744563 -1.225148 34.074074 1.2057408 597
-0.89499676 -0.56782746 -1.3965251 13.666667 1.5815835 47
0.41511518 -0.17511931 -1.2234414 34.137932 1.2077931 600.89655
-0.88561308 -0.56631547 -1.3952079 14.307693 1.5753077 49.615387
0.42449155 -0.17469324 -1.2235453 34.774193 1.2118386 604.9032
-0.87817001 -0.56265998 -1.391 18 1.567 51
0.4344123 -0.17483002 -1.2244602 34.666668 1.2169669 608.93335
-0.86213881 -0.56480002 -1.3962251 14.25 1.564 57.125
0.44145399 -0.17360601 -1.22614 34.799999 1.2214001 611.60004
-0.85491276 -0.56733912 -1.3958364 13.454546 1.561 59.545456
-0.84511727 -0.56763673 -1.395528 13.222222 1.5561111 62.666668
-0.8359046 -0.56705546 -1.3973454 12.545455 1.5530001 65.909096
-0.82537276 -0.56759471 -1.3971002 12.666667 1.5480003 69.333336
-0.81434667 -0.56743169 -1.3959584 13 1.5418336 72.75
-0.8049593 -0.56740594 -1.3958583 14.5 1.5374167 75.833336
-0.79887003 -0.56511337 -1.3956335 12 1.5336666 77.666672
-0.78481072 -0.56734467 -1.3954266 13.6 1.5278667 82.466667
-0.77453631 -0.56739318 -1.3967562 15.375 1.5243748 86.125
-0.76528138 -0.56762075 -1.3950266 15.733335 1.5189333 89.000008
-0.7558772 -0.56850284 -1.395743 14.857143 1.5157144 92.357147
-0.7452414 -0.56714356 -1.3958929 12.571429 1.5107858 95.928574
-0.73772377 -0.56655002 -1.3944125 11.25 1.5061251 98.25
-0.67566866 -0.56674618 -1.3961287 15.523809 1.4823333 120.2381
-0.66548002 -0.56816602 -1.3974466 14.000001 1.4800001 124.13334
-0.65403819 -0.56764823 -1.3966 12.363637 1.4747273 128.09091
-0.64554292 -0.56787592 -1.3971 14.117647 1.4720589 131.23529
-0.63527918 -0.56830847 -1.3960418 13.833334 1.4675001 134.83334
-0.62527651 -0.56720304 -1.3970602 13.6 1.4643501 138.55
-0.6146394 -0.56770754 -1.3972875 14.75 1.4609375 142.5
-0.60417414 -0.56755507 -1.3972416 14.333334 1.4571667 146.33334
-0.59513205 -0.56760937 -1.3966467 12.800001 1.4535334 149.60001
-0.58553499 -0.56760788 -1.3976357 13.714287 1.4511428 153.28572
-0.5747931 -0.56769466 -1.3945925 14.769232 1.4449232 156.92308
-0.56667417 -0.56819499 -1.3967416 13 1.4443334 160.25
-0.55376422 -0.56820917 -1.3951085 12.833334 1.43875 164.91667
0.70595998 -0.40920001 -1.6828001 8 1.781 618
-0.54548144 -0.56770498 -1.3961214 12.714286 1.4368573 168.14287
0.71144998 -0.40501001 -1.6878 8 1.7869999 619
-0.53381729 -0.56781065 -1.39632 14.800001 1.4334667 172.60001
-0.52502 -0.56713533 -1.3964764 14.117647 1.4307059 175.94118
-0.51538938 -0.56776685 -1.3956063 14.375 1.4273127 179.5625
-0.50561875 -0.56766498 -1.3961687 15 1.4249375 183.375
-0.49484748 -0.56802934 -1.3962939 14.75 1.422125 187.5625
-0.484155 -0.56800801 -1.39723 14 1.42 191.8
-0.47489887 -0.5677045 -1.3988888 14.222222 1.4188888 195.55556
-0.23689 0.461285 -1.6141 10 1.543 298
-0.46565664 -0.56823671 -1.3962168 15.666667 1.4142501 198.91667
-0.45425114 -0.56824559 -1.3979555 14.444445 1.4128889 203.55556
-0.44415998 -0.56795549 -1.3973637 13.09091 1.4097275 207.45454
-0.43443274 -0.56854278 -1.3969363 14 1.4071819 211.27274
-0.42442366 -0.5684191 -1.397391 14.181819 1.4051818 215.27274
-0.41445717 -0.56817573 -1.3972785 15.857143 1.4027144 219.21429
-0.40429235 -0.56822771 -1.396831 15.076923 1.400077 223.23077
-0.39449418 -0.56841415 -1.398025 16.166668 1.3990834 227.25
-0.38461626 -0.56842875 -1.3985376 15.5 1.3974999 231.25
-0.375853 -0.569188 -1.396 16.4 1.3937001 234.60001
-0.13185 0.46076 -1.6111 16 1.534 337
0.40159279 -0.47450185 -1.4152727 16.181818 1.4397274 552.63635
-0.36565247 -0.56834751 -1.3968251 15 1.392125 238.75
-0.12926 0.46302 -1.6147 8 1.538 338
-0.35476816 -0.56830996 -1.3959727 16 1.3892728 243.09091
-0.34469599 -0.56833404 -1.39922 16 1.3903999 247.40001
-0.85303003 -0.37507001 -1.4355 16 1.54 56
-0.33414668 -0.56958336 -1.3984668 16.666668 1.3883333 251.66667
-0.32383668 -0.56891334 -1.3982501 17 1.3861668 255.83334
-0.31762001 -0.56879598 -1.39876 17.6 1.3856001 258.39999
-0.30340201 -0.56842601 -1.39868 17.6 1.3832 264.20001
-0.29522628 -0.56830871 -1.3977875 16 1.3811251 267.5
-0.285422 -0.568564 -1.3990201 16 1.381 271.60001
-0.275875 -0.56789249 -1.3988 15.5 1.37925 275.5
-0.25300002 -0.56942332 -1.3994668 12.666667 1.3776668 285
-0.24372858 -0.5694558 -1.3965858 17.142859 1.3740001 288.71429
-0.23306251 -0.5690375 -1.39955 17.5 1.3755001 293.25
-0.22574751 -0.568735 -1.3988249 16.5 1.3740001 296.25
-0.21524201 -0.569224 -1.39814 14.8 1.3726 300.60001
-0.20703501 -0.56950498 -1.3975999 12 1.3715 304
-0.19205001 -0.56740999 -1.39855 18 1.3705001 310.25
-0.18797 -0.56949002 -1.3996 18 1.372 312
-0.17348401 -0.56883997 -1.3980401 15.6 1.3693999 318
-0.16676199 -0.56955206 -1.3972801 17.200001 1.3686001 320.80002
-0.15202001 -0.56945997 -1.3995 20 1.37 327
-0.146 -0.56971002 -1.3980501 16 1.3685 329.5
-0.13646001 -0.56928504 -1.3991001 19 1.369 333.5
-0.094652504 -0.56966501 -1.3979499 18 1.3675001 351
-0.083194204 -0.56850404 -1.39888 18.4 1.368 355.80002
-0.88261002 -0.39906999 -1.6849 10 1.773 87
-0.073150001 -0.56941998 -1.3995 14 1.369 360
-0.063667998 -0.56967002 -1.3959 14 1.3660001 364
-0.045645498 -0.56951499 -1.3996501 19 1.37 371.5
-0.032506 -0.5693 -1.3992 20 1.37 377
0.037232 -0.56966001 -1.4 18 1.376 406
0.043155 -0.56924999 -1.39905 20 1.3755 408.5
-0.87840003 -0.46798 -1.4146 12 1.558 49
-0.86276001 -0.46970001 -1.4198 20 1.5549999 55
-0.79092002 -0.46013999 -1.4195 10 1.518 78
-0.70361 -0.46232 -1.4117 10 1.474 107
-0.72163999 -0.25914001 -1.2006 2 1.253 51
-0.71875 -0.25716501 -1.2004 15 1.251 52
-0.20099001 0.30096 -1.3207999 34 1.217 301
-0.69408667 -0.25909334 -1.2004666 28 1.2393334 62
-0.68300575 -0.25721928 -1.201793 31.857143 1.2348571 66.714287
-0.67850536 -0.25429231 -1.2053292 33.882355 1.2352353 69.176468
0.42692 -0.37106001 -1.4318 10 1.436 564
-0.82880998 -0.53685999 -1.145 2 1.34 19
-0.81182998 -0.53728002 -1.149 0 1.334 26
-0.80524808 -0.53473997 -1.1458701 6.5999999 1.3271999 27.5
0.76760751 -0.091659501 -1.4964999 2.5 1.6092499 675
0.7743901 -0.094600998 -1.4913001 2 1.6086668 678
0.78733671 -0.096269667 -1.4939001 4 1.618 681.33337
0.79528999 -0.099735998 -1.4921 2 1.6210001 684
-0.94703001 -0.55928999 -1.3943 16 1.604 30
-0.93123001 -0.55768001 -1.3903 4 1.592 34
-0.92515999 -0.55155998 -1.3993 8 1.594 37
0.40523174 -0.16567738 -1.2242479 29.565218 1.2031738 596.73914
0.41512749 -0.16709749 -1.220325 33 1.204 601.75
-0.88554001 -0.55993003 -1.3999 12 1.577 50
0.42507336 -0.16691999 -1.2204 32.666668 1.2083334 606
-0.87967002 -0.55539 -1.3967 22 1.5700001 51
0.4360275 -0.16695583 -1.2212584 33.833336 1.2138333 610.5
0.44251752 -0.16559 -1.2226 35 1.2177501 613
-0.82862002 -0.063524 -1.2499 0 1.329 16
-0.78402674 -0.5531534 -1.3964666 3.3333335 1.5236667 82
-0.77546626 -0.55589998 -1.3969624 15.25 1.521125 85.125
-0.76405281 -0.55278718 -1.3982857 19.714287 1.5161431 89.000008
-0.75516629 -0.55343497 -1.3978751 17.5 1.5121249 92
-0.74520624 -0.5537625 -1.3925999 8.25 1.5035 94.625
-0.73774499 -0.557935 -1.3929501 7 1.502 97.5
0.53873497 -0.39827502 -1.6852 10 1.712 568
-0.67792004 -0.55493551 -1.3952001 12.545455 1.4783636 118.63637
-0.89231998 -0.6207 -1.1217999 0 1.39 1
0.40188375 -0.46572497 -1.4153 17 1.43725 553.125
-0.85057998 -0.36535001 -1.4335001 18 1.535 56
-0.35293001 0.45822999 -1.8622 0 1.794 268
-0.74918997 -0.36379999 -1.4398 24 1.493 91
-0.85500002 -0.45162001 -1.4170001 28 1.544 56
0.66922998 -0.29956999 -1.7082 2 1.767 607
-0.20344999 0.31865001 -1.3205 6 1.221 300
-0.68063343 -0.24562 -1.2049167 23.666668 1.2343333 67.833336
-0.67843181 -0.24515001 -1.205409 26.363638 1.2336364 68.818184
-0.81002998 -0.52393001 -1.1473 10 1.327 25
-0.805408 -0.52353203 -1.147 11.2 1.3242 26.6
-0.79970998 -0.52074999 -1.1403 4 1.3150001 27
0.73786247 -0.081673995 -1.4983 2 1.5945001 665.75
0.74424124 -0.082258381 -1.495375 3.75 1.5953751 668.25
0.75469804 -0.086680502 -1.4947599 3 1.6006001 671.5
0.76387501 -0.089193001 -1.4934001 4 1.6045001 674.5
0.40377334 -0.15457267 -1.2245533 23.066668 1.2015334 596.33337
-0.85868001 -0.54440498 -1.391 20 1.5515 56
-0.76272243 -0.54479253 -1.3921 21 1.50775 88
-0.73452997 -0.059423 -1.2448 2 1.275 50
-0.75409395 -0.54475999 -1.3956556 22 1.5069444 91.5
-0.74648166 -0.54509002 -1.3931584 19.166668 1.5016668 93.75
0.54540002 -0.38235 -1.6895 10 1.715 570
-0.68046999 -0.54993999 -1.3990999 10 1.4809999 118
-0.67786998 -0.54521197 -1.3944 20.800001 1.4743999 118
0.89850998 0.38922 -1.5937001 2 1.799 686
0.63615 -0.38161001 -1.6862 6 1.748 598
-0.87094998 -0.074579 -1.497 6 1.562 53
0.70015001 0.10174 -1.5364 0 1.609 647
-0.88871002 -0.61543 -1.1252334 4.666667 1.3883333 2.3333335
0.40168998 -0.45457444 -1.4151112 16 1.4337776 553.55554
-0.75854999 -0.35269001 -1.4378999 28 1.493 87
0.46641001 -0.26056001 -1.4528 12 1.448 579
-0.86870003 -0.4479 -1.4148 26 1.548 51
0.48554 -0.058026999 -1.2410001 10 1.245 629
-0.80554003 0.30892 -1.571 6 1.622 91
-0.20397668 0.32329333 -1.3255334 7.3333335 1.227 300
-0.68015999 -0.23348001 -1.2041 22.666668 1.2313334 67.333336
-0.67877138 -0.23509604 -1.2042534 24.266668 1.2310666 68
0.43232 -0.35811999 -1.4351 10 1.438 566
-0.81285 -0.51183999 -1.1481 4 1.325 23
-0.80730146 -0.51276428 -1.1449143 12.000001 1.3198572 24.428572
0.71588999 -0.073119998 -1.4986 0 1.5829999 659
0.72571909 -0.074242912 -1.4963638 3.4545455 1.5861819 662.45459
0.73433143 -0.077633426 -1.495243 3.7142859 1.5898572 665.28577
0.40273339 -0.14569934 -1.2253801 25.200001 1.2008668 595.93335
-0.86177999 -0.53368002 -1.3951 14 1.553 55
-0.74702996 -0.53940004 -1.3939333 20 1.5006666 93.333336
-0.67653 -0.53825003 -1.3938 6 1.471 118
0.67185998 0.11994 -1.5303 2 1.591 639
0.50198001 -0.16486999 -1.472 32 1.467 591
-0.87386 -0.60136998 -1.1260999 2 1.375 6
0.40147504 -0.44669831 -1.4136667 14 1.4301667 554
0.53034002 0.040881 -1.2686 28 1.29 641
-1.0003 0.12169 -1.5335 0 1.663 21
0.82841998 0.029258 -1.5139 0 1.655 690
0.83565998 0.029315 -1.5167999 1 1.6615 691.5
0.84450996 0.028551001 -1.515625 0.5 1.6654999 694.25
0.85639 0.028791999 -1.5153334 0.66666669 1.6720002 697.66669
-0.80426502 0.31063998 -1.5713 3 1.622 91.5
-0.70554 -0.43627 -1.4179 4 1.473 106
-0.68097144 -0.22554715 -1.2036428 24.57143 1.23 66.571434
-0.67822057 -0.22447698 -1.2061652 27.5 1.2307001 68.200005
0.69751501 -0.061160501 -1.4937751 3.5 1.569 654.25
0.70532 -0.063507006 -1.4944001 3.4285717 1.5735716 656.57147
0.71584338 -0.068254501 -1.4951833 4.3333335 1.5798334 659.66669
-0.91763002 -0.52021003 -1.3924 2 1.575 36
0.40336847 -0.135277 -1.2251099 26.800001 1.1998 596.5
-0.75093001 -0.52102 -1.3945 26 1.497 91
-0.74814999 -0.525805 -1.393 21 1.4960001 92
-0.68340003 -0.52302003 -1.3958 17 1.4705 115
0.88275999 0.40755999 -1.5998 2 1.799 680
0.69279999 -0.36102 -1.6811 8 1.7640001 616
-0.87300998 -0.59878999 -1.1212 2 1.37 5
0.40312669 -0.43355668 -1.4124668 15.333334 1.426 555.33337
0.46641001 -0.4312 -1.4116 10 1.448 579
0.73387003 0.038176998 -1.5136 2 1.604 662
0.75878 0.039627001 -1.5112 0 1.615 670
0.76555502 0.039701 -1.5139999 1 1.6210001 671.5
0.77492332 0.039742336 -1.5155668 0.66666669 1.6273334 674
0.78268498 0.039301999 -1.513225 0 1.6294999 676.75
0.79371744 0.036668248 -1.5132999 0.5 1.6355 680
0.80566823 0.035224363 -1.5154454 0.18181819 1.6438181 683.09094
0.81527805 0.034907598 -1.51484 0 1.6486 686
0.82328665 0.032240503 -1.51565 0.33333334 1.6536667 688.16669
0.8343575 0.031875502 -1.51615 0.5 1.6602499 691.25
0.84334671 0.034295 -1.5185335 1.3333334 1.6673334 693.33337
-0.87036997 -0.42144999 -1.4147 14 1.5420001 49
-0.84065002 -0.42624 -1.4152 4 1.529 59
-0.68088669 -0.21502556 -1.2027889 28.222223 1.2275556 66
-0.67645413 -0.21452905 -1.2060001 28.375 1.2281563 68.5
0.68575668 -0.054043837 -1.4924335 1 1.5616667 650.83337
0.69283503 -0.056777753 -1.4940749 4 1.56675 652.75
0.70159334 -0.058865003 -1.4949335 2.6666667 1.572 655.33337
-0.80500001 -0.23847 -1.4541 8 1.508 70
0.50568002 -0.33471 -1.4322 6 1.459 594
0.40333 -0.12479178 -1.2250882 27.764706 1.1987647 596.70587
0.46237999 -0.12172 -1.2293 2 1.228 621
-0.90205997 -0.32045001 -1.436 2 1.554 38
-0.38371 0.16912 -1.2807 24 1.1849999 210
0.71821499 0.048712999 -1.51165 1 1.5945001 657.5
-0.27195001 0.16912 -1.28075 24 1.163 263.5
0.72633499 0.048800498 -1.5143499 1 1.6010001 659.5
-0.26778501 0.169065 -1.28035 23 1.1619999 265.5
0.7356078 0.047753215 -1.513211 0.66666669 1.6047778 662.55554
0.74442625 0.045323875 -1.51255 1.5 1.6087499 665.375
0.75516862 0.044211287 -1.5136143 0.5714286 1.6152858 668.42859
-0.23214 0.16915999 -1.2810668 24.666668 1.158 283
0.76408714 0.043135427 -1.5134714 0.5714286 1.6198571 671.14288
0.77549666 0.042195838 -1.5137666 1.6666667 1.6261668 674.5
0.78423166 0.0429915 -1.5150666 1 1.632 676.83337
-0.20576 0.16917001 -1.2811334 26 1.1553333 296
0.79045999 0.043350335 -1.5186 0 1.6383333 678
-0.15627 0.16907501 -1.2804501 29 1.151 320.5
-0.1241375 0.169135 -1.2809 27 1.1502501 336.5
-0.1161 0.16912499 -1.28075 27 1.15 340.5
-0.091008998 0.16926999 -1.2819 26 1.151 353
-0.086997673 0.16918334 -1.2812333 23.333334 1.1503334 355
0.43226999 -0.020856 -1.2467 14 1.225 606
-0.07362067 0.16911334 -1.2807333 24.666668 1.15 361.66669
-0.061870001 0.16927001 -1.2818999 26 1.1515 367.5
-0.054851249 0.16921249 -1.2814 27.5 1.15125 371
-0.048836999 0.16914 -1.2809 26 1.151 374
-0.83783001 -0.41637999 -1.4186 4 1.528 60
-0.0247005 0.16848999 -1.2808 30 1.152 386
-0.014598999 0.16914999 -1.281 26 1.1530001 391
0.0046324497 0.16921499 -1.28145 25.5 1.155 400.5
0.0150626 0.16910401 -1.2825201 26.4 1.1569999 405.60001
0.027812 0.16904999 -1.2802 28 1.156 412
-0.77016997 0.33939001 -1.5762 14 1.617 104
0.036024667 0.16914669 -1.2809334 26 1.1576667 416
-0.76428998 0.33809999 -1.5702 16 1.609 105
0.043735404 0.16887599 -1.2808 27.6 1.1583999 419.80002
0.057518497 0.16923499 -1.2816 20 1.161 426.5
-0.74312001 0.33983001 -1.5706 16 1.601 112
0.064613499 0.16917001 -1.28115 19.5 1.1615 430
-0.72799999 -0.41709 -1.4105 10 1.471 96
0.074558005 0.16900001 -1.2814333 22 1.1631668 434.83334
-0.72387666 0.33930334 -1.5706667 14 1.5933332 118.33334
0.083716333 0.16913001 -1.2808335 23.333334 1.164 439.33334
-0.71741998 0.33986998 -1.57075 12 1.5910001 120.5
-0.70231998 0.33983499 -1.5706 17 1.585 125.5
0.1047425 0.16886249 -1.2811749 23 1.1677501 449.5
-0.69809997 0.33996999 -1.5712 14 1.584 127
0.114866 0.16841401 -1.2810801 24.800001 1.1694001 454.39999
0.12232666 0.16872668 -1.2809334 22.666668 1.1706667 458
-0.671 0.33818999 -1.5706 20 1.573 136
0.1361675 0.16932499 -1.282325 23 1.17475 464.5
-0.66843998 0.33840001 -1.5716 22 1.573 137
0.14537801 0.16919 -1.28128 23.200001 1.1755999 469
0.15513501 0.16937 -1.28265 23 1.1789999 473.5
-0.64488667 0.33834335 -1.5713 21.333334 1.5643334 145
0.162655 0.16914751 -1.283325 24 1.18125 477
-0.63571 0.33809 -1.5700999 22 1.5599999 148
0.17388001 0.16921499 -1.2814751 23.5 1.182 482.5
-0.62123001 0.33807001 -1.5700999 22 1.5549999 153
0.18723001 0.16954 -1.2839 22 1.1875 488.5
-0.61866999 0.33827001 -1.5709 22 1.5549999 154
0.19347499 0.16864835 -1.2818999 24.666668 1.187 491.66669
0.205815 0.169185 -1.28125 24 1.1895 497.5
-0.59430999 0.33827001 -1.57095 22 1.5470001 162.5
0.2159325 0.16913751 -1.280875 23 1.1917499 502.25
0.67944002 -0.25927001 -1.7075 22 1.765 611
-0.58515668 0.33817333 -1.5705333 20.666668 1.5436666 165.66667
0.22459 0.16940001 -1.2829 24 1.1960001 506
-0.57490748 0.33857 -1.5723749 22 1.5422499 169.5
0.2337025 0.16909501 -1.28055 26.5 1.19625 510.5
-0.565925 0.338245 -1.57085 20 1.538 172.5
0.24439287 0.16881856 -1.2826144 26.857143 1.2011429 515.14288
-0.55193996 0.33828998 -1.57105 19 1.534 177.5
0.25389501 0.16909751 -1.2806001 24 1.202 519.75
-0.54496002 0.33829999 -1.5711 20 1.5320001 180
0.26567802 0.16919601 -1.28132 22.4 1.2062 525
-0.53651667 0.33825669 -1.5709 20 1.5293334 183
0.27465999 0.16925001 -1.2817334 22.666668 1.2093333 529
-0.52406502 0.33829498 -1.5711 21 1.526 187.5
0.286695 0.1685525 -1.2812251 25 1.2125001 534.5
-0.51604247 0.33851001 -1.572075 21 1.52475 190.5
0.29191598 0.16871201 -1.28146 23.200001 1.2143999 536.79999
-0.50499749 0.33851004 -1.57205 21 1.52175 194.5
0.30770499 0.16844 -1.28035 26 1.2185 544
-0.49504671 0.3382667 -1.5709333 20.666668 1.518 198
0.31551859 0.16884857 -1.2814144 24.57143 1.2221429 547.28577
-0.48609334 0.33840999 -1.5716 21.333334 1.5163333 201.33334
0.32521001 0.169245 -1.2817 24 1.22575 551.5
-0.47025999 0.33812001 -1.5703 20 1.511 207
0.33533832 0.16890833 -1.2823334 25.666668 1.2298334 555.83337
-0.68076885 -0.20497556 -1.2012888 28.444445 1.2246666 65.333336
-0.46539 0.338595 -1.5724499 20 1.512 209
0.34583998 0.1692425 -1.2816501 25 1.233 560.5
-0.67581052 -0.2053165 -1.20293 26 1.2238002 67.75
-0.45427668 0.3383767 -1.5714668 22 1.5083334 213
0.35603598 0.169232 -1.28354 22.4 1.2384001 564.60004
-0.44472 0.33829999 -1.5711 18 1.5057501 216.5
0.36473835 0.169025 -1.2816334 20.666668 1.2398334 568.66669
-0.43816 0.33846 -1.5719 18 1.505 219
0.37477374 0.16858001 -1.2814126 20 1.2433749 573
-0.42491335 0.33866668 -1.5728 20 1.503 224
0.38486001 0.16875336 -1.2811334 22.666668 1.2470001 577.33337
-0.41694665 0.33875334 -1.5732 20.666668 1.5016668 227
0.39498001 0.1692425 -1.2817001 30.5 1.2514999 581.5
-0.40481248 0.33867249 -1.572825 21.5 1.49875 231.5
0.40475798 0.16900001 -1.2817401 26.4 1.2554001 585.60004
-0.39510334 0.3382867 -1.5710334 20.666668 1.4950001 235
0.41528717 0.16891001 -1.2832716 22.000002 1.261 589.71429
-0.38605002 0.33855999 -1.5722749 22.5 1.4945 238.5
0.42488873 0.16878 -1.2829375 19.5 1.264625 593.75
-0.37393665 0.3383767 -1.5714334 21.333334 1.4913334 243
0.43389571 0.16869144 -1.2815859 16.857143 1.2671429 597.71429
-0.36488602 0.33799601 -1.57122 21.6 1.4893999 246.40001
0.44441125 0.16822 -1.2823751 12.25 1.2722499 601.875
-0.35411251 0.33836749 -1.571425 22.5 1.4877499 250.5
-0.34503335 0.33853668 -1.5722001 22 1.487 254
-0.33546004 0.33808202 -1.5716399 21.6 1.4848 257.60001
-0.32465002 0.33836001 -1.5729201 22.800001 1.4844002 261.80002
-0.31681752 0.33813 -1.572225 22.5 1.4825 264.75
-0.30513167 0.33778667 -1.5712833 23 1.4798334 269.16669
-0.29527751 0.33813751 -1.572275 23.5 1.4794999 273
-0.28689203 0.33813402 -1.5718601 22.800001 1.478 276.20001
-0.27648804 0.33811203 -1.5717601 22.800001 1.4766001 280.20001
-0.26544499 0.33862752 -1.57265 22 1.4762499 284.5
-0.25492999 0.33834749 -1.57135 22.5 1.47375 288.5
-0.24480999 0.33801123 -1.5735999 23.5 1.4748751 292.5
-0.23493715 0.33793288 -1.5726858 23.714287 1.4730002 296.28574
-0.22781 0.33833 -1.5712 26 1.471 299
0.40271601 -0.11441401 -1.2242868 26.133335 1.1968668 596.80005
-0.1220025 0.33816499 -1.5724 23.5 1.4665 340.25
-0.1156025 0.33818501 -1.5725 24 1.4664999 342.75
-0.10600334 0.33810663 -1.5728 23.666668 1.4666667 346.5
-0.094999008 0.33826604 -1.5724801 23.6 1.4664 350.80002
-0.085524246 0.33790752 -1.5731375 23 1.4670001 354.5
-0.074497007 0.33861002 -1.5740799 22.800001 1.4682001 358.80002
-0.06558986 0.3379586 -1.5728428 25.142859 1.4670001 362.28574
-0.0547245 0.3391625 -1.5750999 24.5 1.4697502 366.5
-0.043685999 0.33815333 -1.5729835 25 1.4678334 370.83334
-0.034498431 0.33783859 -1.5722715 25.714287 1.4674286 374.42859
-0.02402975 0.33864504 -1.5727249 23.5 1.4685 378.5
-0.016378 0.33845502 -1.5718501 23 1.4680001 381.5
-0.0063270801 0.33826801 -1.5725001 23.200001 1.4692 385.39999
0.0050802836 0.33810002 -1.5727501 25 1.4701667 389.83334
0.014511125 0.33781254 -1.5727249 25.5 1.4707501 393.5
0.024146 0.33856401 -1.57386 25.200001 1.4728001 397.20001
0.034527 0.3378143 -1.5721571 25.428572 1.4718573 401.28574
0.046100859 0.3381286 -1.5736287 23.142859 1.4744287 405.71429
0.056009252 0.33904001 -1.5745001 22 1.4765 409.5
0.066524602 0.33818397 -1.5736401 22.800001 1.4766001 413.60001
0.074877799 0.33860001 -1.57402 22 1.478 416.80002
0.85574001 0.42342001 -1.6 2 1.788 672
0.08423575 0.3376725 -1.5720501 22.5 1.477 420.5
0.093916178 0.33817333 -1.5730834 22.666668 1.4793333 424.16669
0.1051975 0.33789125 -1.5730749 23.25 1.48075 428.5
0.116038 0.33856604 -1.5738801 24 1.4832 432.60001
0.12596834 0.33796501 -1.5721334 23.666668 1.4828334 436.5
0.135864 0.338126 -1.57338 24 1.4856 440.20001
0.14460124 0.33804625 -1.5737998 23.75 1.487375 443.5
0.15496875 0.33784124 -1.5728251 23.5 1.4881251 447.5
0.165685 0.33803123 -1.573725 23.5 1.490875 451.5
0.1756586 0.33786714 -1.5735143 22.285715 1.4924287 455.28574
0.18454428 0.33786431 -1.5724 21.714287 1.4930001 458.71429
0.19495624 0.33812502 -1.5741625 22.25 1.49675 462.5
0.20496 0.33791715 -1.5737427 20.857143 1.4982859 466.28574
0.21479376 0.33793876 -1.5732751 19.75 1.4998749 470
0.22509286 0.33838144 -1.5747857 21.142859 1.5035716 473.71429
0.72209001 -0.34520999 -1.6806 10 1.774 625
0.23516124 0.338155 -1.5743126 22.25 1.5052501 477.5
0.73475003 -0.34198001 -1.6854 4 1.7835 628
0.24561574 0.33814284 -1.5737001 21.142859 1.5070002 481.42859
0.74575001 -0.34403998 -1.6840626 0 1.7878751 631.25
0.25511 0.33787835 -1.5730333 20 1.5085 485
0.75185502 -0.34486002 -1.6870999 1 1.7934999 632.5
0.26457834 0.33813 -1.5729167 18 1.5106667 488.5
0.76087999 -0.34329 -1.6876 0 1.798 635
0.27466798 0.33836204 -1.57294 18 1.5131999 492.20001
0.28427801 0.33787 -1.5722001 21.6 1.5148001 495.80002
0.29443502 0.33853251 -1.572175 19.5 1.5175 499.5
0.30497798 0.33818999 -1.57368 18.4 1.5216001 503.20001
0.31402332 0.33825836 -1.5734833 18 1.5238333 506.5
0.32533997 0.3389675 -1.5742251 17.5 1.5277499 510.5
0.33494002 0.33887336 -1.5737667 19.333334 1.5300001 514
0.34500602 0.33818802 -1.5721401 17.200001 1.5312001 517.79999
0.35429335 0.33762166 -1.5717834 17 1.5335001 521.16669
0.36396399 0.33850002 -1.57358 16.800001 1.5382 524.40002
0.096114002 -0.43031001 -1.6604 14 1.585 420
0.375772 0.338108 -1.57174 16.4 1.54 528.79999
0.38468 0.33753499 -1.5714166 16 1.5423334 532
0.1101 -0.43037 -1.6605999 12 1.587 425
0.39361334 0.33859667 -1.5724667 14 1.5463333 535
0.40463802 0.33772001 -1.5715001 13.6 1.5488001 539
0.4156543 0.33790144 -1.5725571 12.571429 1.5534285 542.71429
0.14513251 -0.43038002 -1.660675 13.5 1.592 437.5
0.42299002 0.3379367 -1.572 12 1.5553334 545.33337
0.18319 -0.43031999 -1.6605 12 1.598 451
0.19315499 -0.43037501 -1.66065 12 1.6 454.5
0.20607333 -0.43053335 -1.6612667 12.666667 1.603 459
0.2142525 -0.43053249 -1.6630499 12 1.60625 461.75
-0.75748003 0.17135 -1.2886 0 1.3329999 53
0.22019 -0.43033999 -1.6605999 12 1.605 464
-0.7454325 0.17327501 -1.2834624 12.25 1.322875 56.5
0.23769 -0.43072 -1.6619999 14 1.61 470
-0.73480505 0.17399 -1.28373 14.400001 1.3180001 60.600002
0.24361001 -0.43090999 -1.6627334 12.666667 1.612 472
-0.72492999 0.17473167 -1.2850585 14.166667 1.3145001 64.666672
0.25492501 -0.43067002 -1.6618 10 1.6135 476
-0.7140494 0.17415135 -1.28392 14.666667 1.3082668 68.600006
0.26647335 -0.43065667 -1.6617668 11.333334 1.6160001 480
-0.70513916 0.17364918 -1.2845416 14.666667 1.3045833 72.166672
-0.69416583 0.17436571 -1.2843502 14.571429 1.2994286 76.428574
0.28663003 -0.43049002 -1.6611335 12 1.6200001 487
-0.68513334 0.17440735 -1.2844669 14.266667 1.2953999 80.000008
0.29335666 -0.43097001 -1.6606668 13.333334 1.6213335 489.33334
-0.67525005 0.17411767 -1.2843943 14.470589 1.2908235 83.882355
0.30502602 -0.43178001 -1.6620001 13.6 1.6256001 493.20001
-0.66492003 0.17399876 -1.2850562 14.375 1.2868124 88.125
0.31438249 -0.4304775 -1.661075 13.5 1.62675 496.5
-0.6546222 0.17384668 -1.2854667 14.666667 1.2826668 92.333336
0.32499668 -0.43079004 -1.6622334 14 1.6306667 500
-0.64556092 0.173887 -1.28396 14.6 1.2774001 95.700005
0.336162 -0.431732 -1.6618201 12 1.6334 503.80002
-0.63489503 0.1749993 -1.2847716 18.714287 1.2737144 100.21429
0.34270251 -0.43159249 -1.6620001 12.5 1.6352501 506
-0.62586665 0.17515802 -1.2866735 16.533335 1.2716666 104.26667
0.35517669 -0.43097502 -1.6607168 12 1.6373336 510.33334
-0.61558539 0.17333801 -1.2838736 17.200001 1.2646667 107.93334
0.36703002 -0.43099502 -1.66135 13 1.64125 514.25
-0.60507292 0.17386356 -1.284943 17.142859 1.2614286 112.50001
0.37363335 -0.43145001 -1.6625333 12.666667 1.6443334 516.33337
-0.59505922 0.17505461 -1.2866 17.23077 1.2590768 117.00001
0.38571748 -0.43054503 -1.661325 11.5 1.6465 520.5
-0.58522534 0.17366467 -1.2842067 18 1.2528666 120.66667
0.39879 -0.43050501 -1.66475 12 1.6535 524.5
-0.57399887 0.17431445 -1.2856055 18 1.249889 125.66666
0.40471998 -0.43101603 -1.6632 11.6 1.6539999 526.60004
-0.56482744 0.17307 -1.2843834 17.833334 1.2451668 129.33334
0.41376501 -0.43104249 -1.66155 11 1.6552501 529.75
-0.55564463 0.17351587 -1.284541 16.941177 1.2419411 133.29411
0.42448002 -0.43145201 -1.66208 11.6 1.6592 533.20001
-0.54524559 0.17411062 -1.2858686 17.25 1.2394375 138
0.43600249 -0.43086252 -1.664325 12 1.66475 536.75
-0.53517431 0.17370859 -1.2859572 19 1.2358572 142.35715
0.44570997 -0.43094 -1.66115 12 1.665 540.25
-0.52565145 0.17326072 -1.2847 19.428572 1.2312857 146.28572
0.45444998 -0.431382 -1.6618401 12.8 1.6686001 543
-0.51504159 0.17313693 -1.2847 19.384617 1.2276154 150.92308
0.46629199 -0.43177801 -1.6619999 12 1.6728001 546.79999
-0.50479335 0.17358889 -1.2846888 19.111111 1.2242222 155.44444
0.47514603 -0.43122599 -1.6625801 11.6 1.6762002 549.60004
-0.49527004 0.17280063 -1.2841938 19.25 1.2205001 159.5625
0.48382252 -0.43146998 -1.6615 12.5 1.67825 552.5
-0.48465502 0.17355074 -1.2855145 19.285715 1.2184286 164.5
0.49475002 -0.43062663 -1.6616334 12 1.682 556
-0.47482786 0.17308858 -1.2848428 20.285715 1.214643 168.78572
0.50624835 -0.43143165 -1.6613333 12 1.6860001 559.66669
-0.46557644 0.17445824 -1.2862998 20.82353 1.2133529 173.17647
0.51099002 -0.43426001 -1.6621 14 1.689 561
-0.45517889 0.17366056 -1.2845778 20.777779 1.2085 177.61111
-0.44500771 0.17370999 -1.2851537 19.846155 1.2060769 182.30769
-0.43403503 0.17347084 -1.2841001 22 1.2019167 187.16667
-0.42486599 0.17302801 -1.2848802 22.133335 1.2000667 191.46667
-0.41444072 0.17344216 -1.283293 21.57143 1.1957858 196.07144
-0.40502802 0.173618 -1.2846667 22.933334 1.1946666 200.60001
-0.39475057 0.17330058 -1.2835412 23.058825 1.1909412 205.23529
-0.38524944 0.17291498 -1.2845333 23.555555 1.1895001 209.77779
-0.37525788 0.17290947 -1.2837369 23.263159 1.1863682 214.36842
0.60732001 -0.43066999 -1.6618 12 1.725 591
-0.36474735 0.17351136 -1.2844735 24.800001 1.1847334 219.40001
0.61364001 -0.43051001 -1.6612 11.333334 1.727 593
-0.35480225 0.17301388 -1.2841779 25.111111 1.1821667 224.05556
-0.34484723 0.17329074 -1.2842501 25.428572 1.180143 228.78572
-0.33532235 0.17286 -1.2840333 25.619047 1.1779048 233.28572
-0.32564497 0.17265563 -1.2837375 26.75 1.1756876 237.875
-0.31527445 0.17302667 -1.2848501 26.111111 1.1748335 242.94444
-0.3045674 0.17286474 -1.2844894 27.052631 1.1725264 248.05263
0.67372501 -0.43035001 -1.66055 11 1.7520001 611
-0.29497707 0.17308766 -1.2849058 27.294117 1.171294 252.70589
0.70613998 0.053902604 -1.5145 0 1.591 653.20001
0.68590003 -0.43162605 -1.6614001 11.6 1.7584 614.40002
-0.28497449 0.17361945 -1.2865053 28.333334 1.1712778 257.66666
0.71387756 0.054324172 -1.5145835 0.83333337 1.5950001 655.58337
0.69192004 -0.431705 -1.660725 11.5 1.7605001 616.25
-0.27528143 0.17192286 -1.2839073 29.142859 1.1670001 262.14288
0.72712821 0.05225718 -1.5163183 0.72727275 1.6031817 659.36365
0.70515668 -0.43061668 -1.6616334 12 1.7670001 620
-0.2649639 0.17308998 -1.2846889 28.555555 1.1663891 267.22223
0.73303002 0.051840998 -1.5172 0 1.607 661
0.71522498 -0.43128002 -1.6607499 12 1.771 623
-0.25492945 0.1728958 -1.284721 28.105263 1.165 272.10526
0.74188501 0.050419003 -1.5183001 0 1.6125 663.5
0.72512001 -0.4313629 -1.6625857 9.7142859 1.777143 625.57147
-0.24487439 0.17227998 -1.2846376 28.75 1.1635 277
0.73420334 -0.43280336 -1.6633334 10 1.7823333 628
-0.23465812 0.17257187 -1.2868313 29 1.1644375 282.125
0.74434006 -0.43096003 -1.6629333 11.333334 1.7863334 631
-0.22479999 0.17321151 -1.2858601 28.5 1.1624501 286.89999
0.75400341 -0.43051335 -1.6612 11.333334 1.7893333 634
-0.21489751 0.17294452 -1.285825 27.700001 1.1613501 291.75
0.76914001 -0.43092 -1.6628 12 1.798 638
-0.20510334 0.17266066 -1.2866868 28.400002 1.1612 296.60001
-0.19478078 0.1731977 -1.2851616 28.000002 1.1588461 301.61539
-0.1863991 0.17189546 -1.2847909 28.909092 1.1576364 305.72729
-0.17468201 0.17194299 -1.2844 29.200001 1.1564001 311.5
-0.16576135 0.17243201 -1.2850335 30.133335 1.1565335 315.93335
-0.15554003 0.17222801 -1.2855002 31.466669 1.1564001 321.00003
-0.14556694 0.17192772 -1.2847538 30.615385 1.1551539 325.9231
-0.13507687 0.17256373 -1.2849 29.625 1.155 331.125
-0.12503739 0.17272787 -1.2849895 30.31579 1.1548421 336.10526
-0.11517601 0.17286451 -1.2852552 29.200001 1.1549 341
-0.10498589 0.17267883 -1.2865058 28.941177 1.1559999 346.05884
-0.095179312 0.17181695 -1.2839385 29.23077 1.1533077 350.9231
-0.084944271 0.17219603 -1.2852466 28.133335 1.1547334 356.00003
-0.074593998 0.1719857 -1.2843857 29.428574 1.1540002 361.14288
-0.064412676 0.17278665 -1.2863278 29.111111 1.1562778 366.16666
-0.054638624 0.17264937 -1.2867501 30.25 1.1569999 371
-0.04453247 0.17240001 -1.2867935 31.200001 1.1574003 376.00003
-0.034962382 0.17201461 -1.2854154 30.615385 1.1564616 380.76926
-0.024067564 0.17259061 -1.2862999 30.5 1.1580627 386.125
-0.014600643 0.17202429 -1.2846571 30.285715 1.1570001 390.85715
-0.0042106202 0.17252687 -1.2858186 30.5 1.159 395.9375
0.0056263246 0.17278875 -1.2865313 29.25 1.1605624 400.75
0.014456001 0.17240538 -1.2868 29.076923 1.1616154 405.07693
0.024526462 0.17215541 -1.2856692 28.46154 1.1614617 410.07693
0.034371357 0.17226857 -1.2864859 28.142859 1.1633573 414.85715
-0.76420665 0.34158668 -1.5762 12 1.6150001 106
0.045152359 0.17223428 -1.2862287 27.285715 1.1643572 420.14288
-0.75553501 0.34177747 -1.5740001 14 1.6094999 108.5
0.055152006 0.17236735 -1.2865267 19.466667 1.1659335 425.00003
-0.744708 0.34242201 -1.5750999 15.2 1.6062001 112.2
0.065088749 0.17205167 -1.2866251 24.333334 1.1673334 429.83334
-0.73446399 0.34218001 -1.57548 15.6 1.6024001 115.6
0.075768307 0.17216101 -1.28688 27 1.1691 435
-0.72497874 0.34350002 -1.57725 16.5 1.6005 119
0.084396727 0.17177455 -1.2856728 26.545456 1.1691819 439.27274
-0.71590996 0.34292802 -1.57742 16.800001 1.597 122
0.095366858 0.17227574 -1.28655 25.857143 1.1718572 444.50003
-0.70471722 0.34359285 -1.5773002 17.714287 1.5927144 125.71429
0.10496143 0.17242286 -1.2862644 23.857143 1.1732143 449.14288
-0.69453001 0.34276333 -1.5766555 14.222222 1.588111 129
0.11511002 0.17235933 -1.2864668 25.466667 1.1752001 454.00003
-0.68486166 0.34160835 -1.5750833 17.666668 1.5828333 132
0.12505911 0.17181093 -1.2859546 26.18182 1.1764545 458.81821
-0.67460895 0.34237334 -1.575689 18.888889 1.5797777 135.55556
0.13471134 0.17249668 -1.2861533 26.800001 1.1786 463.40002
-0.66541559 0.3425478 -1.5756556 16.888889 1.5764446 138.66667
0.14424801 0.17184597 -1.2856101 26.800001 1.1798999 468
-0.65571702 0.34293601 -1.5774601 20 1.5747 142.2
0.15487869 0.17229202 -1.2859735 26.266668 1.1825335 473.00003
-0.64478856 0.34170285 -1.5760286 20.857143 1.5692858 145.71429
0.16431999 0.17160399 -1.28476 26.6 1.1833 477.60001
-0.63443434 0.34195286 -1.5761286 21.428572 1.5658573 149.28572
0.17479502 0.17194502 -1.2858334 26.333334 1.1867502 482.41669
-0.094683997 -0.59157997 -1.3709 18 1.351 351
-0.62512803 0.34153798 -1.5755001 21.6 1.562 152.40001
0.18519701 0.171867 -1.28576 26.4 1.1891001 487.30002
-0.6152156 0.34224665 -1.5767555 21.333334 1.5600001 156
0.19424699 0.171664 -1.28518 26.200001 1.1907001 491.60001
-0.071106002 -0.59015 -1.3712 20 1.351 361
-0.60431713 0.34175289 -1.5762857 21.428572 1.5558572 159.71429
0.20508274 0.17171818 -1.2852273 27.272728 1.1934546 496.63638
-0.59445286 0.34220716 -1.5773 20.57143 1.5537144 163.28572
0.21490251 0.17236333 -1.2873334 27 1.1980834 500.91669
-0.58410716 0.34163859 -1.575743 20 1.5488572 166.71429
0.2248311 0.17146556 -1.2852 28.444445 1.1985556 505.77777
-0.57519668 0.34202334 -1.5770167 19.333334 1.5473335 170
0.23472889 0.17170332 -1.285978 31.333334 1.202 510.22223
-0.84443718 -0.42160144 -1.663443 12.285715 1.7424284 96.000008
-0.56526279 0.34171855 -1.5750716 21.428572 1.5424286 173.28572
0.24485698 0.17182 -1.2863301 29 1.2052 514.79999
-0.83477402 -0.420926 -1.66304 13.6 1.7378 98.800003
-0.55414003 0.34182575 -1.5755429 18.857143 1.5395715 177.28572
0.25488546 0.17177728 -1.2856818 27.454546 1.2074546 519.45459
-0.8245911 -0.42184001 -1.6631223 12.222222 1.7337778 101.88889
-0.54528505 0.34158 -1.5761833 19.666668 1.5375001 180.5
0.26501998 0.17212002 -1.2866501 27.800001 1.2113999 523.90002
-0.81508994 -0.42331499 -1.6646583 12.166667 1.7315 105
-0.53504717 0.3422043 -1.5772859 20 1.5357143 184.28572
0.27516183 0.17204 -1.2867364 27.272728 1.2145455 528.45459
-0.80495417 -0.42320666 -1.664225 12.5 1.7269168 108
-0.52484 0.34161836 -1.5763167 19.333334 1.5318334 187.83334
0.28608114 0.17211555 -1.2867889 27.555555 1.2180001 533.33331
-0.79497427 -0.42315838 -1.6640333 12.833334 1.7226667 111
-0.51510006 0.34195337 -1.5778835 20 1.5306667 191.5
0.295439 0.171755 -1.28687 28.200001 1.2210001 537.5
-0.78467005 -0.42234623 -1.6643386 13.23077 1.7186155 114.15385
-0.50472713 0.34241003 -1.5782572 18.57143 1.5282857 195.28572
0.30521125 0.17160624 -1.2857627 28.75 1.223125 542
-0.7746563 -0.42271274 -1.6632456 12.363637 1.7137274 117.09091
-0.49467576 0.34174001 -1.5761858 19.428572 1.5235715 198.71429
0.31489751 0.17183876 -1.2875125 28 1.2279999 546
-0.76593667 -0.42253557 -1.6650778 12.666667 1.7118889 120
0.048122 -0.59065002 -1.3711333 20.666668 1.3586668 411.33334
-0.48609751 0.34127754 -1.575375 21 1.5204999 201.75
0.32373875 0.17200626 -1.2874751 29 1.2309999 549.875
-0.75486451 -0.4224 -1.6639456 12.727273 1.7065455 123.27273
-0.47523004 0.34167668 -1.57665 20 1.5189999 205.83334
0.33557254 0.17216751 -1.2866501 27.166668 1.2343333 555.16669
-0.74450719 -0.42165148 -1.6636144 12.857143 1.7021428 126.42857
-0.68059999 -0.19624001 -1.2009001 29 1.223 65
-0.46477747 0.34079751 -1.57505 18.5 1.51475 209.5
0.34525901 0.17201301 -1.2858499 28.200001 1.237 559.5
-0.73480248 -0.42176628 -1.6629375 13 1.697875 129.375
0.071180001 -0.59008002 -1.3710001 20 1.3609999 421
-0.6762116 -0.19509666 -1.2027279 25.222223 1.2223336 67.166664
-0.45503747 0.34235251 -1.5766501 19.25 1.51425 213.25
0.35465333 0.17209999 -1.2878222 25.777779 1.2422222 563.22223
-0.72471595 -0.42265838 -1.6637834 12.166667 1.6950835 132.66667
-0.44558164 0.34155667 -1.5760667 18 1.5113333 216.66667
0.36476889 0.17201558 -1.2871891 22.666666 1.2453333 567.66669
-0.7153393 -0.42266142 -1.664593 12.000001 1.6923572 135.71429
0.091751002 -0.59060001 -1.3722501 22 1.365 429.5
-0.43611717 0.34200719 -1.577443 17.142859 1.5105714 220.28572
0.37492555 0.17202222 -1.2871667 21.555555 1.2491112 572
-0.70509201 -0.42245799 -1.66338 11.400001 1.6875 138.8
0.10553 -0.59074247 -1.371675 18.5 1.3665 435.25
-0.42368501 0.34171504 -1.5767834 13 1.5071667 224.83334
0.38440108 0.17202002 -1.2872111 24.444445 1.2527777 576
-0.69496006 -0.42292422 -1.6631249 12.666667 1.6837499 142
0.1146025 -0.59079504 -1.3717999 18 1.368 439
-0.41505331 0.34186834 -1.5762668 14 1.5048335 228
0.39515862 0.17168429 -1.2869858 29.142859 1.2567143 580.57147
-0.68510574 -0.42161006 -1.6634859 13.428572 1.6802858 145.14287
0.1231 -0.59052503 -1.3721 17 1.3695 442.5
-0.40568376 0.34189001 -1.5763875 18.25 1.503 231.5
0.40574199 0.17197399 -1.2875202 27 1.2614001 584.90002
